 0.0002243005 0.0003045908 0.0001771604
 0.0010866596 -0.0005529007 0.0000036322
 0.0006175474 0.0013030036 -0.0002213691
 0.0004714844 -0.0000592784 0.0000766029
 0.0001090466 0.0001886259 0.0000591870
 0.0009958483 -0.0003136392 0.0006985466
 -0.0006686114 -0.0007886371 0.0003082144
 -0.0001592861 -0.0002275324 0.0001094713
 0.0003114199 0.0001876425 -0.0000068115
 -0.0000491027 -0.0001902812 -0.0000081246
 0.0003022951 -0.0001045787 0.0000291768
 0.0001107699 0.0003470676 -0.0000968502
 0.0003488161 -0.0001485547 -0.0002637368
 -0.0002231367 -0.0004522738 -0.0001517232
 0.0001639278 -0.0003432360 0.0002004476
 0.0001661899 -0.0001473698 -0.0001866548
 -0.0000981439 -0.0002081389 0.0001955512
 -0.0000811887 0.0001090139 -0.0000330992
 -0.0000520982 -0.0002612203 0.0001899747
 0.0000415343 -0.0001673189 -0.0001375519
 -0.0000978559 -0.0000992087 -0.0001713763
 0.0002741866 -0.0000987882 0.0001035176
 0.0003201718 -0.0003368262 0.0000599795
 -0.0005141813 -0.0002590999 -0.0006996046
 -0.0003825911 0.0000095658 0.0016763703
 -0.0004136594 -0.0005121979 -0.0004989114
 -0.0009614902 -0.0009181900 -0.0012106696
 0.0006485486 0.0000212051 -0.0000161396
 -0.0006057954 -0.0000125060 0.0002604270
 -0.0004519653 0.0006211535 -0.0001464034
 -0.0000921432 0.0001670932 -0.0003319138
 0.0000235578 -0.0001226382 -0.0002479351
 -0.0001820913 -0.0003491680 -0.0000703481
 0.0000494692 0.0000795396 0.0000334867
 -0.0000869417 -0.0000752927 0.0001338853
 0.0001386262 -0.0002792318 0.0001847476
 0.0000294003 -0.0000024991 0.0000054117
 0.0000954230 0.0001435812 -0.0000896079
 0.0002649123 -0.0001679659 -0.0002330190
 -0.0002498971 -0.0001779148 -0.0003245602
 0.0007252331 -0.0006384505 0.0003873241
 -0.0000462561 0.0005710184 -0.0000153698
 0.0003123756 0.0006537356 -0.0003610734
 0.0000882349 0.0000847145 -0.0002499597
 -0.0002767688 0.0000774089 0.0002809142
 0.0010658276 -0.0003565750 0.0002003564
 0.0004648357 0.0007893195 0.0018342268
 0.0002876343 -0.0001514822 -0.0000316732
 -0.0000373546 -0.0000239733 -0.0000554271
 0.0000227374 0.0009319692 0.0005218758
 -0.0006868493 -0.0010452996 -0.0004740420
 0.0002182636 0.0001218176 -0.0000256253
 0.0001692719 0.0001523625 -0.0000355143
 0.0000193128 -0.0001651497 0.0001062700
 0.0002379187 0.0001542603 0.0002138227
 -0.0003271543 -0.0003853729 -0.0001208695
 0.0001511699 -0.0002470467 -0.0000674096
 -0.0000913863 -0.0000974768 -0.0000668113
 -0.0002704024 -0.0000817810 -0.0000559018
 -0.0007093151 -0.0000717106 -0.0003985457
 -0.0001251234 -0.0002156972 0.0002410397
 -0.0001682951 0.0000669323 -0.0001463126
 0.0001069612 -0.0000166931 -0.0000321339
 -0.0000248615 -0.0000481948 -0.0000546206
 0.0001633504 0.0000327654 -0.0005362078
 0.0004462746 -0.0004196162 0.0001404051
 0.0009054168 0.0001688246 -0.0003512094
 0.0005679250 -0.0002114002 -0.0005221770
 -0.0003338486 -0.0011593469 0.0003029952
 -0.0000209614 -0.0003355354 -0.0008415406
 -0.0000695824 -0.0004940361 0.0001301747
 0.0013281566 0.0000501687 0.0008931898
 0.0008891725 -0.0005393646 0.0003885634
 0.0003572003 -0.0001818455 -0.0000023923
 -0.0000156824 -0.0002050399 -0.0001721778
 -0.0001361371 0.0000407905 0.0000005388
 0.0000231187 -0.0001404039 0.0001235834
 -0.0000776447 0.0001953945 0.0000949572
 -0.0001226503 -0.0001787872 -0.0000679305
 -0.0006901845 -0.0000041579 0.0001425781
 0.0001215824 0.0001077107 -0.0000606319
 -0.0002406888 -0.0003176221 -0.0000389527
 0.0000272213 -0.0000634721 0.0002399168
 -0.0001730425 -0.0002891931 -0.0003035752
 0.0004590108 -0.0004113982 -0.0003879173
 -0.0003223398 0.0006581230 0.0000265213
 0.0006071452 -0.0000318623 -0.0005681422
 -0.0003198877 0.0002077590 0.0002772749
 -0.0000081830 0.0003427477 0.0001479595
 0.0000757886 0.0000414456 0.0007544253
 -0.0000852747 -0.0006357530 0.0002872176
 -0.0001219217 0.0001227146 0.0002509386
 0.0000194792 -0.0001335138 -0.0000954622
 0.0007306003 0.0005928357 0.0008028751
 -0.0003923364 -0.0000610451 -0.0001411810
 -0.0000668604 0.0001929120 -0.0001434326
 0.0000153136 0.0001011905 0.0000887986
 -0.0000169388 0.0000756938 0.0000386672
 0.0003931247 -0.0003744979 -0.0002703848
 -0.0003965286 0.0003223642 0.0000415992
 0.0001075084 -0.0000829704 0.0000324270
 -0.0000197816 0.0001820481 -0.0000465467
 0.0000350468 -0.0000380805 -0.0005775926
 -0.0001510957 -0.0000723234 0.0001458505
 0.0002319175 0.0001189292 -0.0001608144
 0.0002728996 -0.0003014112 0.0000681353
 -0.0000160760 0.0000806369 0.0000296300
 -0.0003259200 0.0000450728 0.0002502932
 -0.0001220343 -0.0000993682 0.0001876572
 -0.0001455875 0.0001698566 -0.0001344505
 0.0011490442 -0.0006790585 0.0003276055
 0.0000903299 0.0000132771 0.0014462395
 0.0007591502 0.0000261508 -0.0010699916
 0.0008401141 -0.0001963229 0.0001534806
 -0.0009303621 0.0014172976 -0.0007336965
 0.0004550891 0.0001734830 -0.0007459698
 0.0000346534 0.0000318158 0.0004959865
 -0.0002489372 -0.0003490670 0.0001558966
 0.0001254151 -0.0000488269 0.0001929595
 0.0000690087 -0.0002142329 0.0000199329
 -0.0002630776 -0.0000584365 -0.0001114288
 0.0000326454 -0.0000026186 0.0001395502
 0.0001118347 -0.0003901800 -0.0000620806
 0.0001100359 -0.0000150889 -0.0000240373
 -0.0000981222 0.0000897621 0.0000639829
 -0.0000083703 0.0001987198 0.0002290615
 -0.0002522525 0.0002365994 -0.0002942483
 -0.0003795494 0.0000987999 0.0000638117
 0.0007408753 -0.0006855790 0.0002424736
 0.0013664774 -0.0018119907 0.0016534072
 0.0004477214 -0.0011003118 0.0004756025
 0.0001348908 -0.0002832435 -0.0000916514
 0.0000964983 0.0000281952 -0.0000322231
 -0.0015635658 0.0001413322 -0.0004141521
 0.0000361416 -0.0005095707 -0.0003710074
 0.0001309586 -0.0001157818 0.0000029861
 -0.0000232167 -0.0001820936 -0.0000994360
 -0.0004525343 -0.0021474729 0.0000122324
 -0.0006875832 0.0011866707 -0.0000305472
 0.0000069598 0.0000899509 0.0000381121
 -0.0000526018 -0.0001185078 0.0001388214
 -0.0000290385 0.0000335176 0.0000421282
 0.0001066809 0.0002448596 -0.0002006575
 -0.0000604365 0.0000950353 -0.0002027098
 -0.0001155801 0.0003857657 -0.0001454362
 -0.0000056315 0.0003768031 0.0002152758
 -0.0002606348 -0.0000719054 -0.0000866144
 0.0000878274 0.0002047964 0.0000032167
 -0.0000671734 0.0001967929 -0.0002937427
 -0.0003850584 0.0002934953 0.0002341101
 0.0000502302 0.0001685918 0.0000529177
 0.0000316414 -0.0000214388 -0.0001527016
 -0.0002779299 -0.0000369895 -0.0003364583
 0.0000230687 -0.0001250997 -0.0001468608
 0.0003155029 -0.0007145491 -0.0007552979
 0.0000873679 -0.0006449987 -0.0010212076
 -0.0006319144 0.0010554556 -0.0011094141
 -0.0012730781 -0.0003425801 0.0007324007
 -0.0004738228 -0.0012327814 -0.0008037987
 -0.0001596695 0.0009355117 0.0011949430
 -0.0017395605 -0.0000932014 0.0013585667
 -0.0003821308 -0.0001382653 -0.0001696488
 -0.0000792485 0.0000130794 -0.0000910241
 -0.0000577653 0.0001405600 -0.0001738567
 -0.0001196374 -0.0001011474 -0.0002381066
 0.0002201367 0.0002310153 -0.0000732426
 0.0000167800 -0.0002621159 0.0001177859
 0.0002302627 0.0003235241 -0.0003586756
 -0.0001146326 0.0002815120 -0.0001882846
 0.0002330036 0.0002373134 0.0000234105
 0.0002591640 0.0000965362 -0.0002753072
 0.0002954897 -0.0000330440 -0.0001133769
 -0.0012523227 0.0001137708 0.0006586071
 0.0000627515 0.0009472765 -0.0002327350
 0.0011021546 -0.0002823323 0.0013841962
 -0.0003470692 0.0002580018 -0.0001617907
 -0.0000209244 0.0001710640 0.0000874453
 0.0001343876 -0.0002430009 0.0006361474
 0.0010737154 0.0006588520 -0.0006861678
 -0.0002967452 0.0000623708 0.0001240397
 -0.0001533476 0.0000164085 -0.0000925750
 -0.0006509229 0.0005090530 -0.0000997055
 0.0001732405 0.0005570532 0.0015789042
 0.0000818448 0.0002818724 0.0000174194
 0.0000079120 -0.0001608183 -0.0000259509
 -0.0002595435 -0.0000121290 -0.0000337815
 0.0000118907 0.0001435010 0.0001686839
 0.0001033639 -0.0002163058 0.0001770840
 -0.0003452311 -0.0002511747 -0.0001125332
 0.0002402950 0.0000802953 0.0002117507
 0.0002741216 -0.0002679958 -0.0002157475
 -0.0004030039 -0.0001450427 0.0002688611
 0.0001080111 -0.0000674666 0.0002044953
 0.0000625546 -0.0000144056 -0.0000574799
 0.0000224397 0.0001595454 -0.0000173344
 0.0003412153 0.0001194458 0.0001470074
 0.0001168421 -0.0002025265 0.0001016175
 -0.0002211249 0.0003041908 -0.0001352718
 -0.0007836705 0.0003058265 0.0002286138
 0.0001714922 -0.0003548936 -0.0008668270
 -0.0007720319 -0.0006101303 0.0002419912
 -0.0008114180 -0.0000484655 -0.0001037644
 -0.0008900126 -0.0011372704 -0.0001720109
 0.0000719516 -0.0007103523 -0.0006041134
 0.0006923761 -0.0000620341 0.0003014727
 -0.0007536396 -0.0003538908 -0.0002140560
 0.0001599074 0.0002153552 0.0000089994
 -0.0000341469 -0.0002178037 0.0000531474
 -0.0003236157 0.0001688788 0.0001495315
 -0.0000904529 -0.0000318639 -0.0001127500
 0.0001169248 0.0004521040 0.0002566221
 -0.0000255981 0.0000045740 -0.0000204993
 0.0000055669 0.0000206400 0.0002111530
 0.0000005653 0.0000037893 -0.0002354248
 -0.0002308214 0.0003097945 -0.0003722616
 0.0004502350 0.0001265722 0.0000467955
 0.0004505157 0.0001329468 -0.0004041568
 0.0004535039 0.0000500083 -0.0002037757
 0.0008634055 -0.0014412355 0.0000769257
 -0.0000269682 0.0000149909 0.0000810741
 -0.0000208613 -0.0001490395 0.0002834607
 0.0008481120 -0.0005312766 0.0003834782
 0.0003257016 0.0005762652 0.0008965470
 0.0003321739 -0.0002531909 -0.0001923395
 -0.0001059639 -0.0001982207 -0.0001556771
 -0.0014380601 -0.0006051747 -0.0005518044
 0.0007027359 -0.0010741471 0.0013942849
 -0.0001078255 -0.0001661387 -0.0002864562
 0.0000063987 0.0001161447 -0.0001460378
 -0.0000928302 -0.0000015046 0.0000168484
 -0.0001020616 0.0003054540 0.0002265843
 0.0000335200 0.0002191469 -0.0005795622
 -0.0000743258 -0.0002313553 -0.0002250291
 0.0000157432 0.0000961484 -0.0000837657
 -0.0001663630 0.0002878378 -0.0002709871
 -0.0000977822 -0.0000605726 -0.0002352059
 0.0000632402 -0.0003692158 -0.0002176363
 -0.0000134678 -0.0002973329 0.0002875985
 0.0001105822 -0.0001332978 0.0002118456
 -0.0000504678 0.0003882511 -0.0004279836
 -0.0003618580 -0.0001651375 -0.0000269699
 -0.0000990267 0.0002641226 -0.0003094360
 -0.0007241568 -0.0007618457 0.0002334072
 0.0002747395 0.0013370548 -0.0003733158
 -0.0003634292 -0.0013729929 -0.0019771347
 -0.0020117762 -0.0002617739 -0.0006684278
 0.0019591836 0.0010694669 -0.0008886721
 0.0000752342 -0.0005621762 0.0000147583
 0.0005783628 0.0006375481 -0.0007982959
 0.0003146936 0.0001318803 0.0003209623
 -0.0001757986 0.0002566561 0.0001141130
 -0.0002353156 -0.0002610263 0.0003377841
 0.0000220731 -0.0003168199 -0.0003425010
 -0.0001312063 0.0001388127 0.0000445532
 0.0000260913 -0.0001450870 0.0000566784
 0.0000047808 0.0003219472 0.0001235774
 -0.0000410517 0.0000385807 0.0001411116
 0.0000830543 -0.0000020484 -0.0000077798
 -0.0001597035 0.0002829551 -0.0001291411
 -0.0002740210 0.0000085730 -0.0001576503
 -0.0008851523 0.0001697520 0.0012748065
 0.0002534856 0.0006030071 -0.0004418410
 -0.0000034583 0.0008143874 -0.0006016762
 -0.0000161642 -0.0000249372 -0.0000436325
 0.0000253371 0.0000818647 0.0004098115
 -0.0001617021 -0.0003941305 -0.0008684061
 0.0004529232 -0.0009750340 -0.0009768945
 0.0002098511 0.0000794835 0.0002287694
 0.0002786797 -0.0001726527 -0.0001157988
 0.0000626376 -0.0002324033 -0.0000330859
 -0.0001144126 -0.0003770540 -0.0003183302
 0.0000209096 0.0001327061 0.0000740270
 0.0000416989 -0.0000474840 -0.0000774082
 -0.0000305792 -0.0000173121 0.0000770888
 0.0002884753 0.0001849405 -0.0002592826
 0.0000543740 0.0003027922 0.0000984229
 -0.0000173645 0.0002342806 0.0000298051
 0.0003015608 -0.0003640895 -0.0001175462
 -0.0000215071 0.0001935967 -0.0000619637
 -0.0000552237 -0.0001892002 -0.0000140955
 -0.0002941982 -0.0001646909 -0.0000256222
 -0.0004225685 0.0001859565 -0.0001512869
 0.0000154627 0.0003851264 -0.0003064508
 -0.0001242255 -0.0002870270 -0.0000358744
 0.0003292525 -0.0002572120 0.0002851929
 -0.0000467156 0.0000001150 -0.0005048067
 0.0003958817 0.0004717633 0.0009000816
 0.0003282730 -0.0005834262 -0.0006079887
 0.0012862771 0.0006389884 -0.0006955233
 -0.0012744920 0.0007811642 -0.0010450830
 0.0001374795 -0.0000536606 0.0002989646
 -0.0009338518 -0.0004942413 -0.0002887652
 0.0001279227 0.0000748393 -0.0008081429
 -0.0001597519 0.0001301777 0.0001334706
 0.0001487818 -0.0000587282 -0.0000553198
 -0.0003371702 0.0000341360 -0.0000272128
 0.0001364464 0.0000671594 -0.0000613170
 -0.0001951323 0.0000651071 -0.0000056203
 0.0000856164 0.0002038292 0.0001559650
 0.0000553278 -0.0001802716 -0.0001499260
 -0.0000029632 -0.0001689749 -0.0000310819
 0.0001840335 -0.0001412212 -0.0002048659
 -0.0002987531 0.0000573171 0.0001699044
 0.0000545826 -0.0000090481 0.0000802619
 0.0001322991 -0.0002682385 -0.0004246116
 0.0004864014 0.0003247789 0.0001420804
 0.0006392018 0.0015422470 -0.0004591015
 -0.0001236358 -0.0000604620 0.0001620056
 0.0004372957 0.0001618236 0.0003127830
 -0.0002517093 0.0015616230 0.0007121460
 -0.0010918761 0.0005120227 -0.0014955291
 -0.0002457702 0.0002229281 0.0000796564
 -0.0002130447 0.0000920405 -0.0000961448
 -0.0011188298 0.0007654860 -0.0008193117
 0.0007974678 0.0005732115 0.0000820614
 -0.0000840714 -0.0000397618 -0.0002410980
 -0.0000469246 -0.0001122496 0.0002936727
 0.0001107402 0.0001916829 0.0001913918
 0.0002712342 -0.0002478902 0.0000454002
 0.0000957870 0.0002984498 0.0004286017
 -0.0000486945 -0.0000116454 -0.0002868427
 0.0001718052 0.0002038307 0.0001977441
 -0.0000148469 -0.0002954040 -0.0000528489
 -0.0003247881 -0.0001383716 -0.0001667542
 0.0000381076 -0.0001333156 -0.0004126785
 0.0003374762 -0.0000106781 -0.0000500261
 -0.0000457503 -0.0003979499 -0.0000708668
 0.0000511665 0.0001344267 -0.0000054187
 -0.0001648621 0.0000050455 0.0003977066
 -0.0001278601 -0.0000291324 0.0002041947
 -0.0006486675 -0.0007275400 -0.0003599027
 -0.0015681613 0.0003524194 0.0010432663
 -0.0001351136 0.0002555090 0.0008109450
 0.0008424452 -0.0007329930 -0.0007857819
 -0.0006270063 0.0001738020 0.0005639216
 -0.0010266143 0.0009915287 0.0003263852
 -0.0000770882 0.0007842572 0.0000892154
 0.0001308946 -0.0001117754 0.0000262244
 0.0000855543 0.0000691832 -0.0002035083
 -0.0001170806 -0.0001777952 -0.0002020219
 0.0001281411 0.0002715662 -0.0000492313
 0.0000674371 -0.0000952220 0.0001787046
 0.0005722637 0.0002091839 0.0000150356
 -0.0000216978 0.0000667732 -0.0002291747
 0.0001291283 0.0000769879 0.0000960610
 -0.0000024241 -0.0001015948 -0.0000438600
 -0.0000614080 0.0000902277 0.0000732493
 -0.0004195075 0.0003101687 0.0003136188
 -0.0003859526 0.0009395329 0.0021151692
 -0.0015757206 -0.0009106603 0.0002968230
 -0.0007277812 -0.0002275531 0.0000093615
 0.0000942521 0.0002041761 0.0005114390
 -0.0001564504 0.0001299944 -0.0000051782
 0.0002634747 -0.0001633806 -0.0018617403
 -0.0007322172 -0.0005992659 -0.0004680996
 0.0001235300 -0.0002995481 0.0000717421
 -0.0001179042 0.0002623813 0.0002444005
 -0.0008102555 -0.0002142248 -0.0003182116
 0.0008357801 0.0008630212 -0.0005879277
 0.0001275248 0.0000191050 -0.0000387289
 -0.0001006611 0.0000744891 0.0001146069
 0.0002029823 -0.0001593557 -0.0000092449
 0.0001233280 0.0001701147 -0.0001903623
 -0.0001999486 -0.0000269025 -0.0002585894
 0.0004465243 -0.0002775964 0.0001347303
 0.0001812471 -0.0002971830 -0.0000956821
 0.0000441016 0.0000438059 -0.0002461401
 -0.0001671715 -0.0000695554 0.0001394500
 0.0001492477 -0.0000692973 -0.0001132306
 0.0001930758 -0.0000315676 -0.0000602663
 -0.0000741642 0.0001381529 -0.0000064854
 -0.0000015899 -0.0001047173 -0.0000933466
 0.0002770291 0.0002025153 -0.0001275265
 -0.0001909384 0.0001250304 -0.0001526266
 0.0004639946 -0.0008609398 -0.0009791208
 0.0000230706 0.0004968270 0.0009848817
 0.0002714904 0.0003429526 0.0000084130
 -0.0013328872 0.0003077460 0.0008748866
 0.0007606907 0.0000039301 0.0001281493
 -0.0013648216 0.0007532394 -0.0003483644
 -0.0005798438 0.0003907394 0.0002623493
 0.0002026200 -0.0002888603 0.0000806601
 -0.0001638355 0.0000007121 0.0000272283
 -0.0001195607 -0.0001073118 0.0000692682
 0.0000421177 0.0002824691 0.0000181975
 0.0001057327 0.0000115876 0.0000643702
 0.0001258842 -0.0001946975 -0.0002862427
 0.0000412143 0.0001337474 0.0001498029
 -0.0001490452 -0.0000399211 0.0000695902
 0.0000218928 0.0001074952 -0.0001019273
 0.0002793254 0.0001663047 0.0001670799
 0.0001989554 0.0000085730 -0.0001357050
 -0.0008555424 0.0012746406 -0.0001145467
 -0.0005059433 0.0001774939 0.0002992303
 -0.0005534569 -0.0002253963 0.0014703210
 0.0003131161 0.0000736733 -0.0002256204
 -0.0002027835 -0.0000181744 -0.0002716240
 -0.0002879584 0.0001452258 -0.0009522499
 -0.0001473350 0.0013638075 0.0009055003
 0.0002334679 -0.0004894879 -0.0001157741
 -0.0000512940 -0.0001280289 0.0003116101
 0.0001921955 0.0019208253 0.0014752532
 -0.0001252081 -0.0003205124 0.0010981232
 0.0000872065 0.0000062374 0.0000034716
 0.0001817627 0.0001346245 -0.0001754926
 0.0002719711 0.0001132886 0.0000742163
 -0.0001499423 0.0001753470 0.0004001837
 -0.0002088642 0.0001800074 -0.0002498965
 -0.0003015406 -0.0005288891 -0.0001722765
 0.0000797693 -0.0004793038 -0.0001265454
 -0.0004939762 -0.0004322808 -0.0000644186
 -0.0000393242 -0.0001681419 0.0000671366
 0.0001563069 0.0002872649 0.0000935325
 0.0000440074 0.0003613468 -0.0002796786
 0.0001354619 0.0002158880 0.0000784093
 -0.0002469488 0.0003048658 0.0000730185
 0.0000315452 -0.0001051422 0.0001287565
 0.0000056978 0.0001323517 -0.0002783280
 0.0001119197 0.0004608362 0.0003773356
 -0.0008194109 0.0000729566 0.0003592391
 -0.0006449614 0.0000036295 0.0005317442
 0.0006645306 -0.0005131407 0.0004748206
 0.0008474499 0.0019611135 0.0007161705
 -0.0014543550 0.0005462152 -0.0010221619
 -0.0009822090 -0.0005099323 -0.0001963390
 -0.0001908161 -0.0001821870 0.0001724009
 0.0000613166 0.0000600566 0.0000292135
 0.0002094119 0.0000240432 -0.0006057199
 0.0000436976 0.0003756969 0.0001248052
 0.0000710928 0.0002581811 -0.0000743508
 0.0005685397 0.0001182951 -0.0001794074
 -0.0002779562 -0.0000343198 -0.0001365155
 0.0001458220 -0.0001388119 0.0000527708
 0.0001594468 0.0005138391 -0.0002110730
 -0.0000194440 -0.0003490610 -0.0003817237
 -0.0002649458 0.0000608158 0.0000166445
 0.0002830183 0.0004345314 0.0004842314
 -0.0008105097 0.0001046903 0.0008776873
 -0.0001069814 0.0002551844 -0.0003171634
 0.0002671461 -0.0000040547 0.0003747540
 -0.0001034888 0.0000081182 -0.0001947764
 -0.0000419349 -0.0001932403 -0.0002218391
 -0.0000957763 0.0009455970 0.0000043842
 -0.0000776517 -0.0001190854 -0.0000055398
 -0.0000650828 -0.0000870221 0.0002205679
 -0.0009856288 -0.0002694012 0.0012114402
 -0.0003333721 -0.0008516107 0.0000379854
 -0.0000899176 0.0002172338 -0.0000356884
 0.0000069764 0.0000872264 -0.0000213150
 -0.0000651328 -0.0001352206 -0.0001374708
 0.0000783063 0.0002692431 -0.0000136320
 -0.0001316589 -0.0002305960 0.0005713421
 0.0001177346 0.0001237675 -0.0004651658
 0.0001969048 -0.0004068104 0.0001944749
 0.0000917603 0.0002032631 0.0002179146
 -0.0000801623 0.0002986015 -0.0000711983
 0.0003716559 0.0002294991 0.0003521952
 0.0000442364 -0.0000619349 0.0004689848
 0.0000076244 -0.0002835573 -0.0001661322
 -0.0000283821 -0.0005604768 0.0003179656
 -0.0001368535 -0.0003802521 -0.0002816365
 0.0002323142 -0.0002733235 -0.0002621536
 -0.0009119729 0.0010152160 0.0005286242
 -0.0002033472 -0.0007534775 0.0005313292
 0.0003631033 -0.0000290312 -0.0006113989
 -0.0003333162 0.0005493144 -0.0004440009
 -0.0005291472 -0.0001449317 0.0009532662
 0.0006410984 -0.0002616648 -0.0001856350
 -0.0012648070 -0.0002293454 -0.0002010480
 -0.0002084068 0.0000303696 0.0003694718
 -0.0000098066 0.0002319657 0.0001286157
 0.0004583936 0.0004327099 0.0002772234
 -0.0001184951 -0.0001921539 0.0000479873
 0.0002802216 0.0001743177 -0.0003092539
 0.0002289487 -0.0001357925 -0.0000386276
 -0.0001299930 -0.0002497954 0.0002522773
 -0.0000852256 -0.0000209781 0.0000441459
 -0.0001916549 0.0000257413 -0.0001746599
 0.0000977995 -0.0000213419 -0.0000883119
 0.0002658709 -0.0002051496 0.0000069205
 0.0008837114 -0.0001543980 0.0006936450
 -0.0003166732 0.0003359647 -0.0004837725
 -0.0001297253 -0.0010849942 -0.0000629050
 0.0002113540 0.0002330372 0.0002792142
 0.0000071731 -0.0003365028 0.0000517586
 0.0010547611 0.0009071138 -0.0001465782
 -0.0008243321 0.0007337643 0.0008169033
 -0.0002080620 0.0000739813 0.0000425969
 0.0002898546 0.0001536935 0.0001232413
 -0.0004000390 -0.0018947885 -0.0007666988
 -0.0003213644 -0.0004502705 -0.0005061540
 0.0000061763 -0.0000847698 0.0001640833
 0.0000755587 -0.0000674026 0.0000264172
 -0.0000130839 -0.0001972171 -0.0000115910
 0.0003384296 -0.0000067024 -0.0001901651
 0.0002160426 0.0000219644 -0.0001296575
 0.0001974483 -0.0000694820 -0.0000483911
 0.0002009492 -0.0001863474 -0.0000211635
 0.0001030911 -0.0000557930 -0.0000669480
 -0.0000408984 0.0001742553 0.0001051912
 0.0000317885 -0.0004463648 0.0001681665
 -0.0003277869 0.0000828387 -0.0000808597
 -0.0000407831 0.0001729732 -0.0000628202
 0.0003725676 -0.0002516834 0.0001398614
 -0.0001689033 -0.0000698552 0.0000571504
 -0.0000580105 -0.0002525041 -0.0000166592
 0.0011990507 0.0002225087 0.0005799333
 -0.0000234240 0.0006514646 -0.0003566639
 -0.0001573716 -0.0009630407 0.0000660057
 0.0011011158 -0.0003295530 0.0000811219
 -0.0011059717 0.0020129989 0.0002404959
 -0.0006536380 -0.0000952744 -0.0001079581
 -0.0014664728 0.0000654506 0.0005642668
 0.0001785709 -0.0000395854 0.0000235069
 -0.0002506133 0.0000071857 -0.0000125024
 0.0001654517 -0.0002504890 0.0001482503
 0.0000867752 0.0000191848 -0.0001735727
 -0.0002175490 -0.0000613050 -0.0000236903
 0.0001581279 -0.0001492045 -0.0000906367
 0.0000513623 0.0001260360 0.0000406375
 0.0000967008 -0.0001455300 0.0000151386
 -0.0001970369 0.0000036813 0.0001304991
 0.0000327932 -0.0004234556 -0.0000230172
 0.0000047454 0.0002369238 -0.0000433089
 -0.0005687378 -0.0013989020 0.0006023429
 0.0009264401 -0.0004484355 0.0000792299
 -0.0000273712 0.0004273678 -0.0001062984
 -0.0003190181 0.0004712358 0.0003161835
 0.0003472787 0.0000597001 0.0000486323
 -0.0007230696 0.0006977178 0.0007608450
 -0.0006505396 0.0005935014 0.0001708255
 -0.0001516372 -0.0002453404 -0.0000936304
 -0.0002732888 0.0003041919 -0.0002127585
 -0.0018883470 0.0008394512 0.0004736365
 -0.0001548388 -0.0011241532 0.0003490630
 0.0001604292 -0.0000840219 0.0000805089
 0.0000636508 0.0000032900 0.0000795751
 0.0000910990 -0.0001616370 -0.0001194829
 -0.0003225191 0.0002051151 -0.0001528465
 0.0001554076 0.0001263570 0.0002252289
 -0.0000498015 0.0003828130 -0.0000264669
 0.0002904080 0.0001266783 -0.0002203057
 0.0002071349 -0.0001574481 -0.0002106689
 -0.0003603614 -0.0002948056 -0.0001433895
 -0.0004224031 -0.0001230622 -0.0000462190
 -0.0000208632 0.0002142474 -0.0000255000
 0.0003269531 0.0003589581 -0.0000876514
 0.0003168363 0.0001167795 0.0001288503
 -0.0002774851 -0.0001589173 0.0000272396
 0.0002298951 0.0001244133 0.0004117803
 -0.0000566479 0.0009512687 -0.0016246443
 -0.0000599530 0.0000981530 -0.0004512294
 -0.0001073083 0.0009404929 -0.0023942938
 -0.0005757522 -0.0000398023 -0.0002644134
 0.0003354199 -0.0012283828 0.0009011812
 0.0003578220 0.0009902424 0.0004076254
 0.0008081553 0.0003888304 -0.0011068608
 0.0000930193 -0.0001024270 -0.0000513603
 -0.0000919836 0.0000293012 0.0003121473
 -0.0002955715 0.0002100017 0.0000158188
 -0.0001058805 0.0001110879 -0.0001282642
 -0.0000507246 -0.0001753831 -0.0001022544
 0.0000768076 0.0001500990 -0.0000956841
 0.0000804639 0.0000354105 -0.0000372203
 0.0000465458 -0.0002857992 -0.0000196243
 -0.0005490351 -0.0001276070 0.0000738469
 0.0000853316 0.0002041651 0.0002793155
 -0.0000902749 -0.0002498341 0.0002055508
 0.0008460679 0.0005809009 0.0006315931
 -0.0007596314 0.0014945425 -0.0006488446
 0.0001144886 -0.0016463710 -0.0011691457
 0.0000112900 -0.0002006791 -0.0001734365
 -0.0000400673 0.0002462488 0.0002399831
 0.0009464147 -0.0007468195 -0.0016730287
 0.0008837093 0.0005629806 0.0005337248
 0.0001832817 0.0001650217 -0.0000363347
 0.0001356899 0.0000101325 -0.0001617110
 -0.0000192002 0.0008788357 0.0001800343
 -0.0002381459 0.0004321070 -0.0003180418
 -0.0000301019 -0.0001521048 0.0001372567
 -0.0001079072 0.0001956642 0.0000587709
 0.0001241051 0.0000642137 0.0000039100
 -0.0000237009 -0.0005323914 0.0002135219
 0.0006064145 -0.0000780542 -0.0000393217
 -0.0000582397 0.0000611505 0.0001061366
 0.0002703478 0.0001030473 0.0000154882
 0.0001456388 -0.0001453001 -0.0001606826
 0.0003190463 -0.0003583848 -0.0004151787
 -0.0003975336 -0.0000675900 -0.0002738720
 0.0001529785 0.0000988283 -0.0001376217
 -0.0001416400 -0.0000271988 0.0001639970
 -0.0002696137 -0.0001346240 0.0000482320
 -0.0004220389 0.0003782695 0.0002888947
 0.0000536613 0.0003354162 0.0001250948
 -0.0005085640 -0.0000994502 -0.0002064070
 0.0001905561 -0.0000273500 -0.0002230534
 -0.0001355308 0.0016749716 -0.0009388654
 -0.0000483683 0.0008355023 -0.0016326899
 -0.0001471856 0.0000854475 0.0010207771
 0.0000994092 -0.0007639594 -0.0006265645
 0.0010466662 -0.0015312814 0.0009223643
 -0.0001413574 0.0000158029 -0.0000988594
 -0.0000458571 -0.0001421253 -0.0000607348
 0.0000472763 0.0000059800 0.0001879456
 0.0001184452 -0.0000859163 0.0001678378
 0.0000707130 0.0000521439 -0.0002213606
 0.0003099915 0.0003257270 0.0002059261
 0.0000486473 -0.0001524303 -0.0001391175
 0.0001088537 -0.0002527330 -0.0001199501
 0.0000194181 0.0004044316 0.0001843403
 -0.0000742086 -0.0000663380 0.0000785402
 0.0001612345 -0.0001795412 0.0001306923
 -0.0006402912 0.0004888742 -0.0000190905
 -0.0001836266 -0.0005908654 0.0001702721
 0.0008533604 0.0001177757 0.0005983953
 -0.0001544874 0.0001804297 0.0002123389
 -0.0001833034 0.0001863006 0.0002964727
 0.0000451402 -0.0000695538 0.0001352486
 -0.0001835456 0.0012392551 -0.0009049497
 0.0000747869 -0.0003764520 0.0002662720
 -0.0000724660 -0.0000657548 -0.0000366616
 -0.0007131421 -0.0001788873 -0.0013801043
 0.0001614684 -0.0015396337 0.0001848193
 -0.0001356161 -0.0000859506 -0.0001548519
 -0.0000414576 0.0001859017 -0.0000579933
 -0.0000353470 0.0001072735 -0.0000172731
 -0.0001619787 -0.0001518434 0.0001327853
 -0.0003122420 -0.0001519644 -0.0001381061
 -0.0000554543 -0.0001485954 -0.0002393683
 0.0000034851 0.0001857159 -0.0000685453
 -0.0001760186 -0.0000577316 0.0001652251
 -0.0000233464 -0.0005047856 -0.0000661241
 -0.0000478471 0.0002840431 -0.0000566349
 0.0003189615 -0.0002817499 -0.0001478410
 -0.0000622797 0.0002229330 0.0000863693
 0.0001686942 -0.0000052335 0.0005163134
 0.0003316460 0.0000183239 -0.0000073314
 0.0005447701 0.0000914151 -0.0001374226
 0.0005395250 -0.0002062884 -0.0004319160
 0.0011673369 0.0001385093 0.0013635506
 -0.0004815158 0.0004969000 -0.0004792561
 0.0005531086 -0.0000238812 0.0006882912
 -0.0003502730 0.0003901436 -0.0001556127
 -0.0003810972 -0.0000323701 0.0003715531
 0.0002317447 -0.0003382947 -0.0005407902
 -0.0000114015 -0.0003400227 0.0003545984
 -0.0000776946 0.0001337978 -0.0000606109
 0.0001826265 0.0002390436 -0.0001177903
 0.0001404949 -0.0003242094 0.0001559446
 0.0001676695 -0.0002853915 0.0000388450
 -0.0004033460 0.0000115490 -0.0002701795
 -0.0000427191 0.0000801356 -0.0000978642
 -0.0001685149 -0.0000633614 0.0000801909
 0.0001170835 0.0001608919 0.0002675142
 0.0000385312 0.0002958870 0.0000710065
 -0.0000793493 0.0002073897 0.0002146577
 -0.0004336472 0.0002951301 -0.0008941891
 -0.0000272208 0.0001806503 -0.0001015159
 -0.0011995464 0.0008413569 -0.0005217991
 -0.0000463304 0.0009055277 0.0000400198
 0.0001500088 -0.0003669659 0.0001010440
 0.0011044550 -0.0009709857 0.0000789843
 -0.0000080481 0.0009476363 -0.0000844898
 0.0001047152 0.0000567162 -0.0005429261
 -0.0000581127 0.0001883717 -0.0002640998
 -0.0000814107 0.0000256505 0.0001646422
 0.0008219708 0.0001614654 -0.0002475795
 -0.0000349946 -0.0000351536 -0.0002033502
 0.0000720418 -0.0002322282 0.0000691741
 -0.0000142111 -0.0001258955 -0.0000288821
 0.0002702823 -0.0001977037 -0.0001784010
 -0.0003278894 -0.0000468921 0.0003445001
 -0.0000604698 -0.0001852191 0.0002068042
 -0.0002148043 0.0001279436 0.0000450507
 0.0003999258 0.0001853465 0.0000340072
 -0.0004087512 -0.0003068121 -0.0000065228
 0.0000289953 -0.0000999951 -0.0000813894
 -0.0002159142 0.0000033461 -0.0000073679
 0.0001327754 0.0002411206 0.0004446576
 0.0003395767 0.0002430426 0.0000003276
 -0.0000404522 0.0001977766 0.0000422996
 -0.0000985554 -0.0001442234 -0.0000869609
 -0.0007989415 0.0005203543 -0.0008174650
 -0.0011577273 -0.0003164889 -0.0012268449
 0.0002571884 -0.0005772591 0.0018014040
 0.0011650498 -0.0006079871 -0.0001238126
 0.0003181180 -0.0004934864 0.0001695829
 -0.0012509370 -0.0000220783 0.0010897676
 0.0005195977 0.0003424242 -0.0011258183
 0.0000778697 -0.0000629879 0.0000667048
 0.0001213166 -0.0000339747 0.0000605325
 -0.0003346279 0.0002008280 -0.0002903620
 0.0002081884 -0.0002372038 -0.0000359587
 0.0001752088 0.0002635460 0.0000941407
 0.0000081647 -0.0002284594 0.0000154997
 -0.0004318299 0.0003456040 -0.0000021919
 -0.0000607564 0.0001010151 0.0000018447
 0.0000575993 -0.0000553362 -0.0001889019
 0.0002168262 0.0001113561 -0.0000691690
 0.0000997420 0.0001714178 -0.0000564375
 -0.0011943961 0.0003396600 0.0010644595
 0.0006525743 0.0008474671 -0.0005625894
 -0.0003899941 -0.0000149482 0.0003474777
 -0.0000818897 -0.0003340696 0.0001172187
 -0.0003772789 0.0000543877 -0.0004631864
 -0.0000769450 0.0003758883 0.0000981121
 0.0005603158 0.0004027759 0.0012560190
 0.0001695384 -0.0003366205 0.0003900218
 0.0002887365 0.0000153695 -0.0001712929
 0.0003183029 -0.0005263958 -0.0005437386
 0.0004031721 -0.0006195379 -0.0004507281
 -0.0000753486 0.0001035025 -0.0000688068
 -0.0001471937 0.0001672651 0.0001573922
 -0.0001570879 -0.0000039880 0.0000588874
 0.0000863552 0.0003208250 -0.0002185841
 -0.0000411948 -0.0002680044 0.0000034663
 0.0000443599 0.0000171921 -0.0000753578
 -0.0001484555 -0.0003170319 0.0000267927
 -0.0001526629 -0.0001839612 -0.0002364904
 0.0002779295 -0.0000732610 -0.0004700478
 -0.0000741211 -0.0003011051 0.0000821425
 0.0001407373 -0.0001072323 -0.0002786566
 -0.0002818732 0.0001698044 -0.0001552156
 -0.0000137878 -0.0001863277 -0.0000484400
 -0.0004618274 0.0001018068 0.0001529634
 0.0006758412 -0.0000001197 -0.0000321534
 0.0009832351 0.0003732481 -0.0010968042
 0.0011004079 -0.0002679123 -0.0006789942
 -0.0001422485 -0.0004579933 -0.0001633353
 0.0001751716 -0.0000849242 0.0011128662
 -0.0002945077 -0.0004570500 0.0007395853
 0.0006275685 -0.0006274062 -0.0018765644
 0.0011387589 0.0005280453 0.0001059240
 0.0003673893 0.0003553846 0.0001973315
 0.0001644609 -0.0002589649 0.0002856110
 0.0002044164 -0.0002586839 0.0000695901
 -0.0001506302 0.0000015591 0.0001826903
 -0.0000566038 -0.0000615909 0.0000579613
 -0.0002481761 -0.0000006117 0.0002072304
 0.0001567664 -0.0000751935 0.0004549589
 -0.0001831944 0.0001021774 -0.0001400873
 -0.0001844168 0.0000518481 -0.0000100224
 -0.0001513096 -0.0002900444 0.0001794282
 0.0000997821 -0.0000775661 -0.0001753408
 0.0008468087 -0.0002081876 -0.0002099164
 -0.0001559921 0.0003030252 0.0005694229
 -0.0000094964 0.0002178234 0.0002279263
 -0.0000553836 0.0002984021 0.0001731688
 0.0001737145 0.0004346360 -0.0000934022
 -0.0007496125 -0.0012530634 0.0013035052
 -0.0007440164 0.0010283442 -0.0000324499
 0.0000038554 -0.0000319381 -0.0001389346
 0.0002448454 -0.0002191275 -0.0002554717
 -0.0012618259 -0.0001748617 -0.0001070433
 0.0000139628 0.0019371265 -0.0014622890
 0.0001920499 0.0000024243 -0.0000396861
 0.0002286903 0.0000507670 0.0000491323
 0.0000612006 0.0000574010 0.0001330441
 -0.0001848019 0.0001107590 -0.0002434409
 0.0001013162 -0.0001218192 0.0000465904
 0.0000939175 -0.0000711072 -0.0000596525
 -0.0000465906 -0.0000567165 0.0006026796
 -0.0002270679 0.0004180281 0.0003039239
 0.0002378412 -0.0003586545 0.0003796850
 0.0001992275 0.0001940102 0.0001428840
 -0.0003929501 -0.0002354516 0.0005407538
 0.0001334548 -0.0001288605 0.0003724801
 -0.0001487978 0.0000255261 -0.0000931618
 0.0000104767 0.0002089823 -0.0000279258
 0.0003067096 0.0001586406 0.0001868611
 0.0001571302 0.0002962783 0.0004843667
 0.0000463270 -0.0003238058 -0.0008863578
 -0.0010665783 -0.0006702873 0.0006843019
 -0.0002780100 -0.0009951810 0.0001043735
 -0.0000277701 0.0011911904 -0.0003076268
 0.0012912939 0.0010278990 0.0013643160
 -0.0003389029 0.0000815199 -0.0018215279
 -0.0000372522 -0.0007703383 0.0001284441
 0.0001010634 0.0000956054 0.0002598075
 -0.0000186669 0.0002675813 -0.0000332245
 -0.0000876742 0.0000056476 0.0001387893
 0.0001103368 0.0000309711 -0.0000400320
 0.0003229076 -0.0000155070 -0.0001759644
 0.0000600102 -0.0002262420 0.0001224833
 0.0001897448 -0.0000903446 0.0002628475
 0.0003021482 -0.0000341906 -0.0001431574
 0.0001845429 -0.0002313946 0.0000818590
 0.0000251008 0.0002488591 0.0002532883
 -0.0012478957 -0.0014479333 0.0003400681
 0.0004563145 -0.0005299662 0.0009912614
 0.0009685146 -0.0012223655 0.0012246731
 0.0000344706 -0.0001022624 -0.0000436967
 0.0001006348 -0.0002107886 0.0000383893
 -0.0009641474 -0.0018308423 0.0002299594
 -0.0002816849 0.0008046323 0.0004483977
 0.0004447276 0.0001353199 -0.0002248833
 0.0000081119 0.0003765867 0.0000830410
 -0.0003271808 0.0003482409 0.0006382109
 -0.0018385390 -0.0000851501 -0.0004327112
 -0.0001982485 -0.0001076441 -0.0000638149
 0.0001698217 -0.0001267051 0.0000250860
 0.0001583885 -0.0001644617 0.0001265246
 0.0000719135 0.0000228699 0.0000724986
 -0.0001946733 0.0001218771 0.0003753342
 0.0004634250 -0.0003168916 -0.0000807599
 0.0001181478 0.0002611042 -0.0003552802
 0.0002965683 -0.0000103380 -0.0000224790
 0.0001055287 -0.0001600570 0.0001351794
 -0.0002176269 0.0000898737 -0.0001957623
 -0.0002216510 0.0003047399 -0.0003744983
 -0.0005613665 -0.0003685564 0.0000112235
 -0.0001701507 0.0002326841 0.0000506680
 -0.0001734239 0.0001330278 -0.0000224853
 0.0001127953 0.0003662684 0.0002855397
 -0.0003800930 -0.0007493230 0.0003708606
 -0.0009681703 0.0000415793 0.0007260210
 0.0010896708 -0.0001698988 0.0004781922
 0.0016116483 -0.0006265454 0.0008041090
 -0.0016003608 0.0006169360 -0.0005822299
 -0.0007350226 -0.0004298661 -0.0003853287
 -0.0016783554 0.0003925370 0.0004418316
 -0.0000384855 -0.0000955978 -0.0002695319
 -0.0001205439 -0.0000948161 -0.0000404077
 -0.0000537696 -0.0003160973 -0.0000198025
 0.0000078014 0.0000741910 0.0000828561
 -0.0002266747 -0.0001875951 -0.0001188504
 -0.0000584173 0.0000262543 0.0000403312
 0.0001266535 -0.0002175952 0.0001377114
 -0.0000798776 -0.0001125137 -0.0000027201
 0.0001299170 0.0001713933 0.0001587068
 0.0003642092 0.0000250934 -0.0001156111
 -0.0004505563 0.0000368310 -0.0000700045
 0.0003118498 -0.0005160651 -0.0001192067
 -0.0008591585 -0.0004361393 0.0014197198
 0.0003629625 -0.0005836505 -0.0006280167
 -0.0000720765 -0.0000489083 0.0000280419
 -0.0000939320 0.0005062908 -0.0001571285
 0.0004787575 0.0000899690 0.0015193162
 0.0020193986 -0.0008014731 0.0002829631
 0.0001494064 -0.0002295314 -0.0001269699
 -0.0004163071 0.0002098054 -0.0003949564
 -0.0004436074 -0.0002686876 0.0003426445
 0.0000387813 -0.0001443105 -0.0000453373
 -0.0000686354 -0.0000147818 -0.0001100630
 -0.0000915647 0.0001044693 0.0001807194
 0.0001952118 0.0001061441 0.0000067511
 -0.0000758609 0.0001095512 0.0001498857
 0.0001601690 0.0002750549 0.0000207487
 -0.0002169881 -0.0000518117 0.0003351427
 0.0001282949 0.0002981229 0.0002283309
 0.0003419008 -0.0006266965 -0.0003278792
 0.0003272023 0.0004140927 -0.0001205999
 0.0001105249 -0.0001473232 -0.0001225913
 0.0002775418 0.0000866746 0.0000412887
 0.0000031733 -0.0001300552 -0.0001673846
 0.0001591198 -0.0001147019 -0.0001247860
 -0.0003151157 -0.0004843404 -0.0000790033
 0.0002036534 -0.0002114112 -0.0000028482
 0.0008374025 -0.0001104171 -0.0006660511
 0.0004314825 0.0007716676 0.0012788983
 0.0003771971 -0.0012366587 -0.0001477171
 0.0014057215 0.0002807268 0.0012506240
 0.0007204027 -0.0011624035 -0.0006814128
 -0.0000893716 -0.0000945617 0.0006242227
 0.0002451949 -0.0003108360 0.0008552172
 0.0002626571 0.0001505767 -0.0000643430
 -0.0002966581 -0.0001128735 0.0000009281
 -0.0003018075 0.0001557094 0.0004756170
 -0.0002011394 -0.0001004048 0.0003726616
 0.0000508195 -0.0000552472 -0.0000424840
 -0.0005370666 -0.0002897323 0.0002200617
 -0.0000720927 -0.0000073749 -0.0001250746
 0.0000291641 0.0001161719 -0.0002543877
 -0.0001135846 0.0000070320 -0.0001468742
 0.0002183329 0.0002701901 -0.0002211746
 0.0002939478 0.0003209236 0.0000025103
 -0.0000652127 0.0001557047 -0.0003410183
 -0.0006863934 -0.0005873998 0.0008956750
 -0.0007122325 -0.0001592559 -0.0004641019
 -0.0000337954 -0.0000453985 -0.0000847033
 -0.0000950094 0.0000836819 0.0002573227
 0.0000169269 -0.0001907182 -0.0002448076
 0.0005037057 -0.0001114858 -0.0003904029
 0.0002582697 -0.0000958839 0.0000885630
 -0.0006119155 0.0000082232 0.0001194562
 0.0012955868 0.0002146877 -0.0005498260
 0.0000115307 0.0005745396 0.0005112929
 -0.0002081684 -0.0002430243 -0.0000454424
 -0.0001353844 0.0002024797 0.0000668858
 0.0002214962 -0.0000146046 -0.0001283550
 0.0000762401 -0.0001829515 0.0001853228
 -0.0002187169 0.0001292439 -0.0000429050
 0.0004478968 0.0000575500 0.0001159862
 -0.0001138585 0.0001012949 0.0000829228
 0.0003463674 0.0001360220 -0.0001553031
 -0.0000797413 0.0002255259 0.0003923161
 0.0001696005 0.0000113040 -0.0001262506
 -0.0001038188 0.0001630143 0.0000937968
 -0.0001693576 0.0000847124 -0.0000527922
 0.0001117785 0.0004743646 0.0001929721
 0.0001608683 0.0005350413 0.0003757379
 -0.0000631281 -0.0003307814 -0.0004615859
 0.0000367373 0.0006693149 0.0004171792
 0.0007019791 -0.0001422258 -0.0010919807
 0.0004790877 -0.0002700534 0.0001600442
 -0.0008360020 -0.0007358911 0.0005782786
 -0.0005010485 0.0001444375 -0.0012112062
 -0.0003390615 0.0014373011 0.0001929104
 -0.0008203048 -0.0008296073 0.0002175273
 0.0000173826 -0.0002301826 -0.0003439109
 0.0000774962 0.0000267390 -0.0000047717
 -0.0001249927 0.0002673191 -0.0001935080
 0.0000568127 -0.0001426710 -0.0001217866
 0.0002278931 0.0000124359 -0.0001333965
 -0.0000106803 0.0000816666 0.0001315791
 0.0003252877 0.0000503328 0.0004056969
 -0.0001726641 0.0000345840 -0.0000393531
 -0.0000800228 0.0001454570 0.0002301977
 0.0002377970 0.0002785722 0.0003291222
 0.0001091053 -0.0001101002 0.0000398988
 -0.0009749415 -0.0001624044 0.0005921378
 0.0011008040 -0.0007892079 -0.0001804367
 -0.0008429079 -0.0006354999 0.0001070933
 -0.0001862727 0.0002238746 0.0003306564
 -0.0000985088 0.0000715048 0.0002196238
 0.0010553933 -0.0000258265 0.0017679495
 -0.0004424444 -0.0000860392 -0.0005882987
 -0.0000684686 0.0002471967 0.0002376835
 -0.0003338796 -0.0002738820 -0.0001504407
 0.0008736566 0.0003162642 0.0008693650
 -0.0006248707 -0.0008188929 0.0005664874
 -0.0001386497 -0.0000587045 0.0001067156
 -0.0001273901 -0.0002589264 0.0000665586
 -0.0001387249 0.0000187853 0.0000918692
 0.0002781848 0.0001980327 0.0001459792
 0.0001833916 -0.0002070074 0.0001935581
 0.0001156929 0.0000346846 0.0001548397
 0.0001086401 -0.0003236217 -0.0005445470
 0.0001525063 -0.0002231092 -0.0000372928
 0.0001175226 0.0000881341 0.0002097144
 -0.0001570405 0.0001761331 -0.0001283477
 -0.0002287302 0.0001070606 0.0001306819
 0.0002658519 0.0000883678 -0.0003989407
 0.0000626854 -0.0001450153 -0.0003625234
 0.0003198327 -0.0003029188 -0.0002812463
 -0.0003051343 -0.0004759936 -0.0001850779
 0.0006679819 -0.0001675763 0.0005053300
 -0.0002967688 -0.0010763915 0.0000375045
 0.0008875044 0.0011104110 -0.0011344356
 -0.0005869900 0.0004361657 0.0009498568
 0.0000525689 0.0010711324 0.0004828496
 0.0003561123 -0.0002936257 0.0007265572
 0.0012870052 -0.0015151536 -0.0005090309
 0.0005041190 -0.0002543140 -0.0001859380
 -0.0000860037 -0.0001276634 0.0001340960
 0.0000881133 -0.0001215633 -0.0003630774
 -0.0000000555 0.0001461882 0.0002750087
 -0.0001486340 0.0000842347 0.0000020843
 -0.0000297902 -0.0000729033 -0.0000542563
 -0.0001788948 0.0000283119 -0.0001454530
 0.0002257305 0.0001624079 0.0001044953
 -0.0001053666 -0.0001209472 0.0000966694
 -0.0001372745 -0.0001022809 -0.0000196056
 0.0001714433 -0.0002651918 0.0000226466
 -0.0004366213 -0.0008717763 -0.0008531341
 -0.0009766200 0.0012620477 -0.0009426568
 -0.0012462479 0.0005426562 -0.0000018631
 0.0002754352 -0.0000592497 -0.0000951149
 0.0000212814 0.0000840805 -0.0001360061
 -0.0002554932 -0.0002791121 -0.0002822198
 0.0013058808 0.0005260991 -0.0009357593
 -0.0002107010 0.0001033495 0.0001941566
 0.0001195165 0.0000649477 -0.0000932096
 0.0006624825 0.0002842626 0.0003582478
 0.0000387397 -0.0008565219 -0.0004739094
 -0.0001604340 0.0001333666 -0.0001422899
 -0.0000040710 0.0001951405 0.0000925145
 0.0000010507 0.0000659685 -0.0001666779
 -0.0000460913 -0.0001137247 0.0000566433
 -0.0000140211 -0.0000128944 -0.0001117068
 -0.0002301371 -0.0000461950 -0.0001684586
 0.0002070631 0.0002346419 0.0004746516
 0.0000998303 0.0001974436 0.0001896278
 0.0000419452 0.0000606119 -0.0000537645
 0.0001400142 0.0001538899 0.0004436811
 0.0002337514 0.0003998902 -0.0001091200
 0.0002898267 0.0000682820 -0.0003324422
 0.0000726984 0.0000478674 0.0001807885
 -0.0001336044 0.0002527263 -0.0002343121
 -0.0000554029 0.0000880463 -0.0001716564
 0.0007506703 -0.0008641256 -0.0000713553
 -0.0007706597 -0.0001886005 -0.0002663254
 -0.0002578243 -0.0001335875 0.0003944040
 0.0010512396 0.0000834657 -0.0004171478
 0.0002016115 -0.0006094790 0.0004904239
 0.0002581927 0.0011971671 0.0010042119
 0.0010847824 0.0004542242 -0.0003923056
 -0.0001770174 -0.0000479169 0.0000746333
 -0.0000098688 -0.0000392066 0.0000856726
 0.0003561050 0.0000365408 0.0002863933
 -0.0000654287 0.0002475859 0.0001039950
 -0.0001108069 0.0000006438 0.0002011261
 0.0004760821 0.0002640572 -0.0001169467
 -0.0002428031 0.0000429960 0.0002485799
 0.0001044939 -0.0000843248 0.0000387272
 -0.0002632438 -0.0001371717 0.0001458164
 0.0005851367 0.0000196174 -0.0002312180
 0.0004488082 0.0001259298 0.0000311217
 -0.0000728429 -0.0001561263 -0.0007516671
 -0.0006639731 0.0002508628 -0.0005274427
 0.0008614217 0.0001398647 0.0010256316
 -0.0001453457 -0.0002430345 -0.0000117838
 -0.0000725236 -0.0003530230 0.0000148106
 0.0009230557 -0.0004982855 -0.0003304763
 -0.0001163060 -0.0000395305 -0.0009223526
 0.0001434694 -0.0002756678 -0.0001219784
 0.0000875237 -0.0000809762 -0.0001736163
 0.0005091184 -0.0001352364 -0.0007768019
 0.0014761913 -0.0001533155 0.0010712214
 0.0000637551 -0.0001892294 -0.0000732768
 0.0000438084 0.0000292645 0.0000479324
 -0.0001062912 0.0000874881 0.0001209798
 -0.0002584965 0.0001343139 0.0000086754
 -0.0001873062 0.0001029184 -0.0000282481
 -0.0006500691 -0.0001182686 0.0003573644
 0.0000593729 0.0003036262 -0.0001584072
 0.0003120908 0.0002807481 0.0002939554
 -0.0000769049 -0.0000777550 -0.0002852252
 -0.0000933442 -0.0002352139 0.0004993175
 -0.0000968157 -0.0001106783 0.0000128536
 -0.0003320043 0.0000228051 -0.0002642048
 -0.0003151537 0.0001130112 -0.0003397831
 -0.0002669588 -0.0002618032 0.0000243510
 -0.0001037997 0.0002378902 -0.0002312431
 0.0004452663 0.0007617659 -0.0002146828
 -0.0005109964 0.0008261557 0.0006022197
 -0.0007021738 0.0005458455 0.0000216853
 0.0006589668 0.0002709686 0.0011697680
 0.0001466672 -0.0005263741 0.0005644370
 -0.0001206774 0.0008693364 -0.0004223522
 0.0000467751 -0.0010777113 -0.0003533172
 -0.0000954968 -0.0000804018 0.0000179464
 -0.0000057089 -0.0000315516 -0.0001130310
 0.0002161889 -0.0001028691 -0.0001009221
 -0.0000064681 0.0000535862 0.0004128535
 -0.0000398184 -0.0000022581 0.0000766088
 -0.0000569556 -0.0001460315 -0.0004842277
 -0.0003326574 0.0003078754 -0.0002815157
 -0.0001559478 0.0001194689 -0.0000471162
 0.0001474224 -0.0003788822 0.0002647966
 0.0000862303 0.0001832192 -0.0002646890
 -0.0000147065 0.0005081874 0.0000604253
 0.0009168314 0.0002613543 -0.0004845067
 0.0001802062 -0.0002044646 0.0000368313
 0.0004061961 -0.0001878540 0.0011958991
 0.0003129901 -0.0002710975 0.0000504638
 0.0000228135 0.0001055250 -0.0001693381
 -0.0010220356 -0.0003486716 0.0017015923
 -0.0003989497 0.0008302187 -0.0003566146
 -0.0002495624 -0.0000826347 -0.0001975163
 -0.0001195388 0.0000145007 -0.0002459105
 0.0000984735 0.0010584720 0.0008877032
 0.0005379549 0.0000655627 0.0008648090
 0.0000006455 -0.0001495653 0.0000119501
 -0.0000647256 0.0001941838 -0.0000941498
 0.0000326176 -0.0000023186 -0.0000543718
 0.0003399286 -0.0001277244 0.0000331266
 0.0001214587 0.0002277659 0.0000087445
 -0.0003610668 -0.0001691958 0.0001473600
 0.0002475805 -0.0003511877 -0.0001007208
 -0.0001209403 -0.0005440278 0.0004120581
 -0.0001479211 0.0000438014 0.0000153747
 0.0002806237 0.0001249819 -0.0000449994
 0.0003612436 0.0000469851 0.0001252700
 0.0002734870 -0.0003683511 -0.0003158670
 0.0001517143 -0.0000814938 -0.0000737945
 -0.0000879925 -0.0003225484 -0.0000726501
 -0.0003215221 0.0000142299 -0.0003155660
 -0.0003206879 0.0003619546 -0.0007371423
 -0.0015134169 0.0007862535 -0.0001607040
 0.0003334422 -0.0004267569 0.0002365793
 -0.0013625731 0.0005391795 0.0001342630
 0.0002522137 -0.0008521375 -0.0000828493
 -0.0002552734 0.0003861142 -0.0003469067
 -0.0006646578 -0.0004220951 -0.0004646814
 -0.0000404750 -0.0001086729 -0.0001940173
 0.0000269474 0.0001133967 0.0002067369
 0.0003390310 0.0002082259 -0.0005079521
 -0.0002096627 0.0002507904 -0.0001981684
 -0.0000629168 -0.0002584674 -0.0000361961
 -0.0000897807 -0.0001922647 -0.0001098284
 0.0000177701 0.0000168016 0.0000036659
 -0.0001786874 0.0001193145 0.0001388522
 -0.0000108926 -0.0000617827 0.0000676968
 -0.0000324144 -0.0001903992 0.0000140492
 -0.0000409374 0.0000418191 -0.0005406319
 0.0000025765 0.0006589982 -0.0007654232
 -0.0002021568 -0.0001830051 -0.0009538370
 0.0004187574 -0.0005788215 0.0000577841
 0.0000833036 0.0000021993 -0.0001263735
 0.0000661474 0.0002149036 -0.0000040637
 -0.0018657128 -0.0001979389 -0.0006219596
 0.0001220356 0.0002349585 0.0006762981
 0.0000496554 0.0001677727 0.0002582133
 0.0002657890 0.0000517870 -0.0002746530
 -0.0003464653 -0.0012072887 0.0004568827
 0.0005249743 -0.0020501294 0.0015119020
 -0.0002274481 0.0001229038 -0.0002659416
 -0.0001952803 0.0001313042 0.0001485488
 -0.0000764217 0.0000450670 0.0002351444
 0.0000542249 0.0000968439 0.0000186636
 -0.0001807574 -0.0001809375 0.0000411809
 -0.0002703470 0.0003640857 0.0002600181
 0.0003110404 -0.0002044132 -0.0000969855
 -0.0001804202 0.0000262991 0.0002971091
 0.0001019071 0.0001376768 0.0000542788
 0.0001288523 -0.0000754480 -0.0001603555
 0.0000723140 0.0000936944 -0.0000291400
 -0.0001349815 -0.0000388855 0.0006550127
 -0.0003564609 0.0000851883 0.0000834253
 0.0001313201 -0.0000013926 -0.0000594457
 -0.0000814247 -0.0001327432 -0.0000279701
 -0.0002592676 0.0014191651 0.0000987450
 -0.0005602872 0.0008151244 -0.0005544832
 0.0004221345 -0.0004533096 0.0002074270
 0.0006216950 0.0007802372 -0.0005476315
 -0.0000210516 -0.0002186610 0.0011942755
 -0.0003721095 -0.0016629195 -0.0005350516
 -0.0002793776 0.0007917911 -0.0004000909
 0.0002421533 0.0002941287 0.0002415664
 0.0001805006 -0.0001070813 -0.0002509038
 -0.0001448021 -0.0000046327 0.0000218901
 0.0004346231 0.0003573884 0.0000843021
 0.0003095899 -0.0002077841 -0.0001864566
 0.0000528439 0.0001810800 0.0003701342
 0.0004092058 0.0000181098 -0.0000302490
 0.0000767393 -0.0000299870 -0.0000116536
 0.0000205986 0.0001833726 -0.0000325987
 0.0004672300 0.0004178500 0.0000363901
 -0.0005813769 0.0002097679 0.0000576519
 0.0001001458 0.0007036919 0.0002822222
 0.0015071831 -0.0004772017 -0.0001957612
 0.0000621072 -0.0012613837 -0.0010638888
 0.0000366839 -0.0002756818 0.0001141515
 0.0000229214 -0.0000750512 -0.0000515370
 0.0003286862 -0.0008452329 -0.0004563584
 0.0006932648 -0.0005945679 -0.0005354598
 0.0003751465 -0.0003244397 -0.0003631960
 0.0001696743 0.0002142154 0.0001504934
 -0.0017521804 0.0003336864 -0.0000840805
 -0.0001876356 -0.0003362772 -0.0004170458
 0.0001531664 -0.0000829690 -0.0001914697
 -0.0002389165 -0.0000960901 0.0000543175
 -0.0001758873 0.0000015975 0.0000802415
 -0.0002115848 -0.0001074526 0.0001056369
 0.0001151006 0.0000091554 -0.0001599385
